     0     4     9     7     8     6     8     8    10    12    16    14    18    21    23    24    30    26    25    21    16    16    16    19    21    17    16     9     6     4     5     0     0
     4     5     7     9     7    10     9    12     9    12    14    16    18    19    23    23    23    23    23    21    16    17    15    18    18    14    13     8     6     6     5     1     0
    10     9    10    10    10    11    16    15    13    13    14    14    17    17    23    23    23    21    23    17    16    17    20    19    18    14    12     6     7     6     5     0    -1
    11    12    10    12    13    16    16    18    16    14    13    17    16    18    21    21    22    24    21    18    17    18    19    16    17    14    10     8     4     5     4     2     3
    18    13    12    15    18    20    22    21    20    16    15    16    21    18    18    19    23    21    23    19    20    17    18    14    17    11    13     7     3     6     7     3     5
    19    17    15    16    18    21    19    21    20    19    17    15    17    16    17    20    18    19    18    17    14    14    12    13    12    11    12     9     6     7     4     5     4
    21    18    21    19    24    20    23    23    24    20    20    16    15    17    17    19    19    20    20    18    14    10    11     9     7     9    12    11    10    10     8     6     8
    25    23    22    23    21    21    22    22    25    22    18    19    18    17    15    17    18    19    20    18    14    11    10     7     6     8     7     9    12    11    12    12     9
    29    26    26    24    27    23    21    22    28    23    21    18    20    16    19    18    19    18    19    14    15    11    13     8     3     6     7     8    14    10    13    17    22
    25    22    22    22    22    22    23    22    23    23    20    21    19    17    16    16    13    14    15    13    13    12    10     6     3     5     5     9    10    12    14    18    18
    22    22    22    21    24    23    25    23    24    23    24    20    22    16    17    13    12    10    11    11    12    11    11     9     8     7    10    11     9    11    15    14    18
    19    20    19    20    23    23    21    23    23    22    22    20    21    19    18    18    15    12    12    10    11    12    11    10     9    10    10    12    12    11    13    14    14
    23    22    23    22    21    22    19    19    20    19    19    19    19    18    22    20    18    14    12    10     8    11    13    13    16    10    11    14    15    10    13    13    20
    18    19    20    22    19    22    19    21    20    22    21    22    18    21    18    18    15    15    11    11     9     9    12    13    13    13    14    15    14    12    14    14    16
    18    17    19    19    22    24    25    25    26    25    27    22    19    21    22    18    18    16    14    10     8     7    10    12    11    15    17    15    14    11    14    14    14
    16    17    18    21    23    24    24    26    29    29    26    23    19    19    18    21    19    18    14    11    11    12    12    12    14    16    15    15    12    12    14    17    16
    16    15    18    19    23    22    24    26    37    29    28    22    20    17    16    17    24    16    13    12    12    11    16    13    18    14    16    13    11    12    17    19    25
    16    18    18    23    23    24    26    26    27    27    25    23    20    18    17    15    14    15    14    12    12    12    14    14    13    13    12    14    11    15    14    17    16
    17    18    23    25    28    27    26    26    28    23    24    21    19    15    16    14    13    12    17    13    13    12    16    11    13    12    11    13    15    15    14    14    20
    18    18    22    24    25    26    24    22    23    20    19    20    18    18    14    12    11    13    13    14    14    13    11    10     8    10     7    11    11    12    13    13    13
    19    18    21    23    29    24    21    21    18    17    21    18    19    17    17    10    11     8     8    12    17    10     9     9     9     7     6    11    16    13    11    11    16
    18    19    20    25    24    23    22    19    19    17    17    15    15    17    14    11     9     7     6     7     7    10     8     5     5     3     4     8     7    10     9    10    12
    18    20    25    24    26    22    24    20    21    16    14    13    15    14    14     7     6     3     6     6     4     7     8     5     5     1     3     2     5     6     7     6     8
    20    19    19    22    23    22    21    20    18    19    15    12    10    10     8     5     2     4     4     3     4     4     4     2     3     1     0     1     1     5     4     5     4
    22    20    21    23    24    20    18    19    22    15    15    11    14     8     7     3     3     3     0     0     3     2     3     1     3     0     1    -1     1     1     4     1     3
    14    16    19    21    19    20    20    18    16    14    15    13    11     8     5     4     0     1     2     2     2     2     3     2     4     2    -1     0     0     0     2     2     0
    12    13    18    19    20    16    20    16    13    11    14    13    13     8     9     5     3     4     7     5     5     5     4     4     7     2     1     1     0    -2     0     0    -1
     8    12    13    15    14    15    16    14    11    12     9    10    10     9     5     7     7     8     7     4     6     6     4     7     7     4     1     0     0     0     1     2     0
     8     7     8     9    15    14    11    10    13    10    10    10     7     7     6     7    12     8     7     5     8     7     7     7     8     5     3     0    -1    -2    -2     1    10
     5     3     6     8    12    12    10    11    11    10    10     9     9     7     6     9    10     9     6     6     7     6     8     9     6     3     4     3     1     0     0     4     3
     1     3     3     5    11     9    13    11    14    10    13     9    12     9    10     9    12     9    12     7     7     7    12    11     8     5     4     4     3    -1    -1     2     5
     0     3     2     6     7     7     9    10    13    11    11    12     7     7     6     9    10     9     9    12     8     9    11    11    10     7     2     3     0    -1    -2     2     3
     0     3     5     4     4     7    10    11    13    10    12     9     8     7     5     7    11     9    11    11    14    11    13    12    11     6     5     1     0     0     0     0     0
